ply
    format ascii 1.0
    element vertex 4334
    property float x
    property float y
    property float z
    property uchar red
    property uchar green
    property uchar blue
    end_header
1104.799527 89.102833 705.566100 196 219 215
1104.799527 89.102833 705.566100 196 219 215
1110.536582 80.272161 707.092131 152 183 176
1122.077959 103.232254 711.307949 197 219 214
1121.487315 97.889407 710.911536 122 144 139
1173.189825 -43.046885 743.031608 45 84 93
1130.065759 95.172587 713.814619 157 190 183
1129.793142 121.800850 713.413124 148 171 167
1143.339422 37.300810 720.311103 37 76 84
1134.345624 75.845677 714.659336 155 172 169
1140.333130 119.069406 717.863030 198 220 215
1140.333130 119.069406 717.863030 198 220 215
1136.475656 104.392071 713.763796 114 144 139
1147.782085 139.376708 720.069305 129 154 158
1153.089704 135.712280 721.433170 201 223 218
1157.507529 128.517552 722.440046 161 196 186
1147.310541 120.349146 716.036382 112 138 132
1160.650377 147.608608 721.765683 124 150 144
1166.932257 153.814299 725.541869 202 225 220
1173.662953 176.424148 728.041435 143 167 165
1173.662953 176.424148 728.041435 143 167 165
1164.953136 164.989554 721.064775 135 158 153
1185.188279 209.735142 730.910038 188 209 200
1185.188279 209.735142 730.910038 188 209 200
1174.782378 159.819158 723.718285 123 153 142
1199.006731 218.944690 736.927441 135 162 159
1174.440606 319.733865 719.413019 107 126 123
1192.079940 257.787609 728.331305 136 160 160
1198.417531 225.312525 732.251189 128 154 148
1197.439480 234.694007 731.153434 209 225 224
1197.439480 234.694007 731.153434 209 225 224
1197.439480 234.694007 731.153434 209 225 224
1188.375380 276.614771 724.644799 147 170 165
1257.794400 -5.606188 766.851858 72 116 110
1203.968038 256.479500 733.063360 206 226 221
1109.736512 512.243911 674.778985 164 184 172
1109.736512 512.243911 674.778985 164 184 172
1190.195141 355.767819 723.365145 137 159 157
1206.309783 276.763913 733.022818 205 222 218
1195.503072 311.421395 726.030790 210 225 221
1090.400609 545.441303 661.746628 179 196 185
1185.299783 394.645536 719.002091 137 159 157
1111.877678 539.217519 674.384366 132 151 148
1213.962191 265.870022 735.444134 137 164 148
1172.291504 382.302458 710.192660 205 218 216
1189.840538 353.024888 720.559566 211 226 222
1202.898055 432.445483 727.772351 205 221 210
1206.941847 377.056275 730.149186 199 213 207
1207.883642 347.080468 730.571557 153 176 172
1207.883642 347.080468 730.571557 153 176 172
1110.712589 446.059976 671.697720 138 161 163
1218.672090 286.916793 736.793692 140 170 157
1113.954842 565.741691 673.364467 188 207 204
1198.015740 395.133514 724.109297 205 219 215
1136.904751 501.439323 686.981809 198 212 211
1124.356571 530.261591 678.962039 202 217 213
1212.195256 367.992084 731.861595 130 158 145
1209.769094 348.458717 730.212290 179 201 196
1128.947471 463.966731 681.465001 206 222 221
1203.905456 438.912151 726.654684 208 225 216
1118.473925 537.268846 675.082806 198 213 205
1104.415865 478.889025 666.608298 196 215 218
1214.094440 411.873603 732.704625 154 175 172
1209.653861 429.475641 729.612635 113 132 135
1121.132402 500.888836 676.132373 221 235 234
1117.644882 442.430673 673.879608 211 224 216
1123.006075 547.984531 676.785588 210 221 225
1095.425313 549.824930 659.975201 194 210 216
1206.083022 350.652467 725.976020 214 228 227
1215.362273 337.926748 730.961127 215 228 226
1200.727309 444.527405 721.931759 124 149 139
1200.727309 444.527405 721.931759 124 149 139
1131.174580 536.294795 680.061224 102 117 113
992.881061 404.746415 596.743243 173 196 192
1155.096774 475.229610 693.595938 150 170 175
1150.882085 460.084230 690.716169 120 149 158
1236.414823 441.094536 741.959422 209 222 220
1212.161076 416.568505 727.023447 216 228 228
1129.100588 469.514547 677.067585 126 148 159
1129.100588 469.514547 677.067585 126 148 159
1143.828764 545.572517 685.689922 116 135 120
1225.878700 358.014632 733.605580 131 152 153
1198.104182 503.660969 716.476830 167 195 202
1206.030220 362.691966 720.695135 43 74 89
1232.819026 364.649612 735.807661 182 207 209
1155.540007 508.096440 689.712534 206 220 218
1252.806862 442.149432 747.637832 119 144 134
1250.804572 421.876350 746.347415 108 136 143
1276.886963 457.095794 761.439238 112 134 129
1242.759811 317.483288 739.779062 184 206 211
1242.759811 317.483288 739.779062 184 206 211
1247.994677 412.736035 741.485605 118 149 152
1132.031206 480.842290 672.528709 124 162 167
1280.399551 365.516809 757.477550 38 78 90
1265.170152 326.762810 747.886378 73 100 120
1257.091518 321.968998 742.927971 166 193 207
1272.662637 318.972325 752.052661 134 160 174
1200.371846 509.918706 709.212916 99 137 139
1243.692994 491.215276 732.912625 33 66 81
1395.397636 13.552712 816.256712 16 50 63
1400.996677 375.693103 815.671042 34 70 80
1400.996677 375.693103 815.671042 34 70 80
1417.238339 2.524434 823.411475 91 124 117
1370.186100 216.028175 793.605840 78 118 123
1424.623374 37.836625 825.079312 27 67 79
1333.655986 378.798391 768.505634 35 73 85
1388.204244 259.535597 798.151062 69 110 112
1375.989482 357.589507 789.138007 25 66 75
1452.188026 81.697939 831.822472 62 94 100
1343.043964 428.155811 769.100113 25 62 76
1402.211433 268.979776 802.104326 76 114 118
1371.505486 402.467214 784.267858 129 170 172
1461.577389 70.278228 835.547438 178 205 202
1394.369450 329.170502 797.092693 44 79 92
1291.743372 538.632960 737.443053 27 66 75
1402.306839 289.149380 797.748932 25 66 75
1544.723757 -23.548870 877.510209 106 130 130
1400.645897 397.645522 795.345947 141 160 167
1400.645897 397.645522 795.345947 141 160 167
1404.028371 406.113266 796.877001 114 135 150
1406.928280 388.931413 798.457535 141 161 178
1388.101265 446.796367 787.081629 212 227 230
1459.657536 226.583134 827.585796 85 122 126
1421.223072 323.408841 805.456726 182 201 208
1448.038509 279.876186 820.519147 27 62 76
1568.909146 -68.299874 888.854376 63 100 104
1492.962074 86.738898 845.524846 158 194 194
1438.708647 459.235187 814.520667 141 160 173
1569.973575 -87.415977 888.408107 140 161 153
1328.185809 593.004459 751.556523 123 161 161
1508.472922 63.101336 853.360946 83 113 114
1324.738011 577.318239 749.429362 87 134 142
1425.466440 403.709266 806.359842 208 225 222
1461.531877 237.493221 826.059168 80 116 122
1416.013026 404.014918 799.783465 110 131 133
1403.095259 512.892541 792.356615 98 130 125
1358.406374 436.779707 767.016494 206 225 228
1358.406374 436.779707 767.016494 206 225 228
1382.329814 565.353323 780.455327 113 137 125
1336.199737 590.269278 754.340180 6 11 14
1336.199737 590.269278 754.340180 6 11 14
1578.762824 -92.342528 890.427794 139 154 150
1584.137332 -83.629293 893.156906 139 158 155
1584.137332 -83.629293 893.156906 139 158 155
1438.454071 368.913439 810.812661 109 131 143
1518.191280 88.227397 854.545643 117 139 137
1518.191280 88.227397 854.545643 117 139 137
1351.505061 580.044975 760.635520 88 135 126
1352.556203 391.989584 760.421733 90 119 126
1598.463102 -79.778339 897.919410 143 160 156
1471.251375 382.308665 825.794916 199 231 220
1530.004584 91.852290 858.281814 107 127 128
1565.235028 66.827189 877.732975 157 184 188
1371.373187 608.315115 768.741849 114 136 131
1506.976334 238.933483 843.352391 29 66 80
1608.463435 15.612611 900.002314 124 155 154
1515.702074 199.970669 847.976714 33 74 83
1608.050965 -89.887441 899.468908 176 200 198
1519.159022 189.698278 849.118890 46 82 92
1542.266404 136.267167 861.740229 43 76 85
1542.266404 136.267167 861.740229 43 76 85
1617.337877 -8.588446 903.378198 130 151 153
1529.294795 293.585886 850.161144 101 132 125
1593.102060 82.621278 885.181959 78 106 107
1573.513443 103.217558 873.485532 125 147 152
1592.417539 321.060477 883.242862 213 223 217
1578.457059 101.453507 874.019059 169 198 203
1592.193335 116.660587 881.272734 47 78 87
1538.870798 295.252110 851.345210 91 118 115
1601.598930 114.403420 883.965842 147 189 188
1591.826355 104.900182 878.342919 169 199 204
1573.685132 187.205825 868.315233 118 143 147
1568.562680 207.893191 865.269083 105 129 135
1603.922163 111.009409 884.018325 110 129 137
1603.922163 111.009409 884.018325 110 129 137
1612.174843 98.020131 888.516983 125 137 143
1612.174843 98.020131 888.516983 125 137 143
1611.045478 122.066299 887.812770 51 80 89
1573.432845 249.190064 866.098491 128 149 150
1565.058606 292.243592 860.468018 108 132 130
1618.423390 115.184921 888.795934 122 138 150
1618.423390 115.184921 888.795934 122 138 150
1570.276439 261.718974 861.980570 114 138 128
1602.793531 199.590098 879.508973 116 141 143
1604.465376 194.883326 879.900668 180 210 211
1563.616173 277.297049 855.983002 121 140 131
1613.377831 191.022772 882.773082 125 146 147
156.113511 227.686454 463.170610 102 137 150
157.221195 221.486384 454.620667 102 137 150
156.836024 219.250167 465.492815 79 108 122
161.738121 249.099959 465.557684 81 116 126
162.637665 230.714987 466.821107 97 132 145
197.220182 150.499111 498.722506 105 154 176
197.105342 185.508263 496.177697 98 140 159
195.382029 257.904111 491.839878 85 120 130
195.146616 269.307767 485.358409 87 119 124
197.352314 267.016402 488.102780 84 115 118
194.389540 341.707441 476.161510 83 111 112
194.389540 341.707441 476.161510 83 111 112
205.517413 203.718888 499.508214 89 118 122
207.945966 246.891985 496.758842 96 132 138
211.602335 215.227775 501.753572 87 114 118
212.436923 210.546938 501.280604 90 117 121
212.194225 234.481185 498.609918 73 103 108
213.653314 212.750516 501.448074 87 113 119
200.123598 296.515964 366.601949 120 146 153
239.918375 349.458124 383.074058 174 195 197
229.967737 51.965816 397.047999 174 194 199
215.934656 276.976821 324.373815 195 208 216
219.003442 265.501516 332.524503 109 135 141
234.737838 117.154192 368.551823 92 120 121
235.757352 120.845109 369.592484 80 108 115
223.819841 262.964535 336.836852 107 135 142
240.221675 92.775941 369.475243 107 134 138
242.046597 143.356792 377.825671 87 116 123
241.029149 121.548933 371.187595 100 134 140
220.082387 345.022842 320.507047 191 212 209
253.211601 -9.740034 387.607610 169 194 190
246.332701 125.489200 374.358300 78 106 113
247.555879 91.575607 373.330064 156 179 175
247.555879 91.575607 373.330064 156 179 175
234.546330 266.063165 341.768286 122 144 139
252.157854 64.373067 380.195530 163 183 171
250.360920 87.361334 375.420112 148 172 162
240.088354 255.900778 351.706072 125 149 139
251.329274 97.603843 374.529457 115 144 153
245.669820 250.515005 367.404237 97 125 126
252.534772 128.850874 377.338639 147 171 161
228.340664 348.881988 324.053927 184 210 204
255.264246 74.989497 379.221992 159 177 164
254.983599 78.504191 378.354638 154 178 166
244.694736 256.959353 354.598737 135 161 148
255.721223 97.331397 376.139680 150 175 165
256.057577 121.794274 377.600971 147 171 159
256.668472 96.635301 376.379475 155 180 170
234.985795 338.544382 331.397968 192 206 204
257.980037 126.290268 378.622099 151 176 162
234.711250 352.476458 331.204499 193 214 212
234.711250 352.476458 331.204499 193 214 212
236.558331 324.611613 332.508114 203 215 215
259.295875 118.040877 380.061844 138 164 151
259.694891 115.668431 380.711112 137 165 152
237.887704 314.720094 333.510307 213 218 217
236.427146 343.591772 332.104340 200 218 211
259.578554 125.585148 379.445612 156 174 161
260.704081 131.297393 380.646309 150 178 165
242.345935 289.175714 338.854923 201 205 210
261.400915 100.691678 378.921739 147 172 162
267.901124 34.252105 391.674968 229 234 232
262.108620 127.523113 380.678015 151 176 162
240.651246 334.031184 334.543148 183 200 197
245.526557 289.812536 341.285085 200 202 210
266.964670 104.900628 385.427982 154 179 165
272.350584 24.517302 393.931692 229 230 226
276.212833 17.496810 396.475744 228 231 222
253.366085 275.594654 352.267019 123 146 141
273.084414 93.049988 391.034873 149 173 161
274.300949 83.033733 393.238645 160 184 172
280.364986 10.199984 398.906446 167 190 185
275.546918 95.626212 391.426992 144 167 159
274.287515 135.231851 387.059455 160 181 166
275.745079 124.740462 389.543360 164 182 169
252.321685 328.287404 340.990847 201 208 211
276.822052 131.343644 387.125001 150 172 160
282.338518 85.751079 396.538616 210 218 217
279.625864 157.951236 394.206367 120 147 143
283.588042 78.009096 398.125110 205 215 215
278.523661 132.160411 387.735429 136 159 154
254.040236 341.028950 341.626117 188 202 200
287.557932 55.933374 402.528033 165 188 183
290.328736 49.048554 405.066575 159 184 180
253.482012 357.704407 333.230646 177 192 194
293.891520 41.718844 407.268029 163 186 182
287.841034 113.234947 391.546816 179 193 189
301.969276 28.245941 412.261741 184 218 231
278.548150 41.957033 347.749600 167 189 184
305.987539 22.700228 414.914366 207 226 229
307.350845 21.770546 414.465523 204 219 215
395.957626 336.460956 615.803163 193 211 218
394.773686 356.652498 614.311681 190 209 217
396.560418 383.700221 606.321475 178 206 213
401.931155 394.242236 614.645066 172 204 215
387.027045 318.752059 566.111158 189 210 218
405.471521 481.498767 604.391196 228 240 246
405.471521 481.498767 604.391196 228 240 246
327.984727 0.893709 425.802507 141 163 139
330.726925 1.809370 425.865375 143 163 144
337.639520 -2.338715 429.161777 148 170 151
300.557265 387.607106 369.177303 127 141 117
321.224274 396.205803 378.838728 6 16 16
375.818483 -15.578708 444.512027 113 132 115
486.977849 345.679169 634.746534 199 212 226
331.253916 402.318319 381.962127 141 201 200
384.005687 -16.602622 447.770502 103 127 109
475.379004 479.819239 588.777248 192 213 221
364.542669 410.170767 416.867503 91 121 126
399.940348 -17.673013 453.989899 124 150 132
518.186038 303.037870 633.456945 232 244 246
370.762479 420.332745 419.372947 90 122 128
524.024324 256.145260 621.882381 214 223 220
416.514445 -16.831003 460.292769 228 235 232
372.961142 410.017589 402.325586 78 114 122
490.363100 397.904108 549.034310 156 184 184
450.993381 -8.067652 472.485775 232 234 228
446.719776 -4.774522 461.113225 232 234 228
408.411650 430.393606 417.816002 84 121 135
409.386421 425.296447 418.340593 78 110 121
558.318855 154.716930 581.831306 208 219 217
558.318855 154.716930 581.831306 208 219 217
492.420228 -4.070112 483.383780 234 235 231
542.878249 384.675073 544.248326 189 215 221
499.636176 -1.564912 485.730658 232 233 229
500.426439 -8.518912 485.734310 230 235 226
478.917174 455.380848 464.182945 102 131 136
529.617096 50.389748 498.290206 229 233 228
531.508118 41.124562 498.879931 226 230 225
564.871593 248.965717 529.021235 154 175 176
564.871593 248.965717 529.021235 154 175 176
510.066252 468.111788 470.363523 109 138 153
510.525892 459.728974 468.399143 108 137 141
565.625816 248.885633 521.368349 152 171 174
562.312200 23.661466 511.651127 226 227 223
574.089138 -28.314914 518.401040 227 233 228
574.089138 -28.314914 518.401040 227 233 228
559.079300 152.239975 505.648550 174 189 191
577.777033 -27.052024 519.942933 225 229 224
562.150942 133.148482 505.575242 190 200 200
566.770963 92.661181 509.289739 217 224 221
564.809888 131.483052 506.663147 188 197 200
561.710058 163.159223 503.020512 168 180 184
554.733052 187.711231 495.761571 164 182 181
579.247809 28.642020 517.314301 222 226 220
564.627553 165.276827 503.996117 165 177 181
556.244494 190.615558 494.992220 160 180 181
568.467881 156.571111 506.111779 172 184 188
568.012797 164.013566 505.436602 169 182 184
559.314910 181.405103 496.948405 174 189 192
557.850357 196.181817 495.597159 162 181 186
557.910142 196.285699 495.668553 162 181 186
571.340576 155.814940 507.144307 172 186 185
570.399472 166.477379 505.826519 176 191 194
527.608505 389.850350 466.426447 194 212 211
576.910060 135.605420 510.245774 188 205 202
559.868898 293.264976 493.729353 141 166 170
554.070189 341.169161 487.682647 150 175 179
555.895221 342.708503 486.277038 136 161 171
553.274509 380.484692 482.926007 145 172 176
602.113762 48.054378 525.069301 213 221 214
580.574441 186.544621 506.054750 154 174 175
588.354892 142.699842 512.262443 193 205 205
539.454228 441.456872 466.772642 142 177 187
544.098077 431.241340 469.615491 167 193 200
588.803077 163.487907 508.191862 160 176 182
540.497166 465.509212 466.340225 102 134 145
547.524926 426.267578 471.196988 206 222 221
545.025326 450.860798 468.474078 136 171 181
593.414319 155.710331 510.070504 172 188 194
547.430449 450.729295 469.665952 142 175 184
549.507800 434.756025 470.953420 168 194 200
551.772414 428.823394 472.739335 199 218 215
571.738082 387.807886 490.293787 154 174 179
571.050492 387.311184 489.372250 154 174 179
558.440360 415.194819 476.540636 182 203 195
577.694861 372.222613 493.620243 134 161 165
577.694861 372.222613 493.620243 134 161 165
577.694861 372.222613 493.620243 134 161 165
600.206930 177.915984 510.644951 170 182 186
598.468982 286.080976 509.994195 129 154 156
597.810227 285.683084 509.111410 129 154 156
564.155585 415.045516 479.017393 178 196 195
558.482707 452.812905 474.079210 154 183 188
601.275533 225.825023 510.753539 133 159 165
565.362160 427.005908 478.695200 202 218 211
566.351766 420.114733 479.318750 196 213 204
633.007819 57.294304 535.902889 201 215 211
570.978502 417.197774 481.609998 175 197 195
608.877178 220.642760 513.816672 147 167 172
603.328226 316.054976 508.410843 123 150 154
576.546305 439.038978 483.118410 202 217 213
607.159138 326.336705 508.662012 120 145 155
582.250962 419.785967 486.308565 186 203 200
654.236801 15.118170 545.544251 123 150 140
654.811467 28.744288 544.966338 165 192 183
582.766506 445.451530 484.781322 203 218 220
643.648965 141.412412 535.440004 159 180 177
615.611240 325.906753 511.906600 117 142 152
583.802090 461.644698 484.570695 209 222 214
583.802090 461.644698 484.570695 209 222 214
593.491375 465.881040 488.076751 205 222 219
597.122665 452.482394 490.195248 203 217 215
596.416471 474.852412 488.550020 195 212 209
627.777862 372.347859 514.409628 179 196 193
628.480286 378.574439 513.854439 191 207 196
616.677082 419.518801 502.643049 203 222 230
616.677082 419.518801 502.643049 203 222 230
635.868655 401.161399 515.201131 192 208 197
639.326772 381.503068 517.677495 190 206 195
637.448070 397.107782 515.710202 190 206 195
642.296797 376.704692 519.283832 188 201 199
634.592724 416.461668 512.883094 177 192 188
639.083843 401.503522 515.992338 192 206 195
639.638903 414.729384 515.960960 166 190 178
623.771760 444.058357 501.133402 194 208 206
644.662700 413.589298 518.646685 182 199 190
617.091090 491.801600 495.700304 202 216 214
632.201582 450.105146 503.485827 196 210 216
714.584367 31.659176 566.688051 43 79 87
718.345622 29.340940 568.536671 35 71 81
653.715305 425.817795 517.849757 158 177 184
640.441309 483.672296 506.242251 184 199 191
650.603039 469.999287 510.248253 128 149 151
662.218322 433.782399 518.997839 185 152 149
708.390553 245.197935 553.043297 186 198 202
708.390553 245.197935 553.043297 186 198 202
712.974998 225.749644 556.419187 149 170 172
712.974998 225.749644 556.419187 149 170 172
732.754985 208.256197 564.762028 60 94 107
736.365126 206.485127 566.678406 61 93 106
742.813039 167.804671 570.848902 62 94 107
737.246891 209.384796 566.128196 48 83 93
750.957083 136.268418 575.180021 43 77 83
732.249395 298.249621 558.873629 36 72 82
765.510324 91.875037 583.297419 26 62 70
751.555485 264.655129 568.538833 29 69 81
751.555485 264.655129 568.538833 29 69 81
753.767933 234.959355 569.479718 40 78 83
796.904905 68.045003 595.329793 20 59 73
811.964645 39.039136 601.591864 61 99 111
1019.638800 312.051041 749.527093 115 138 116
754.897095 493.344007 550.309350 154 176 174
1037.926535 306.809157 757.650494 156 187 184
764.484227 500.661069 553.515224 156 176 181
854.811546 12.946203 616.512607 50 86 94
875.368281 252.769824 632.430674 73 110 118
859.664422 65.461403 617.572145 49 81 86
1048.759162 304.065766 758.675523 145 174 195
1038.689264 466.463852 750.436447 161 187 199
945.346098 111.306837 677.080718 142 166 172
945.346098 111.306837 677.080718 142 166 172
1024.163378 296.363948 736.501617 145 174 195
741.694395 495.764626 529.171339 173 195 206
856.865328 491.986353 613.822643 60 95 108
1070.126790 293.263339 767.634764 114 150 158
953.436741 111.826791 680.431344 128 161 154
877.008836 58.594814 624.053112 27 66 74
879.055750 71.437601 625.190618 90 125 138
1068.715551 309.389456 764.947935 161 188 208
964.393954 107.241923 683.570757 107 135 122
1093.042671 318.591541 774.313309 159 185 209
904.632152 -6.209638 635.059779 33 71 76
979.679010 110.572124 689.784678 91 122 115
1101.643965 244.891493 777.929892 203 224 221
961.813027 46.069239 676.273198 141 170 175
989.331855 111.308279 693.509894 109 139 134
987.642266 109.032779 692.140554 119 149 138
892.949097 15.224423 623.480318 53 89 97
915.781657 43.001527 638.271787 154 181 185
1040.889689 146.575930 727.904802 206 217 214
1003.704766 114.879760 699.418845 151 175 167
910.348682 6.529031 632.117420 41 78 86
691.828116 471.112072 478.773987 124 154 155
1131.914356 330.087048 788.563436 170 193 209
1132.416756 309.434251 787.319138 133 167 161
933.488977 39.374403 644.391237 144 171 181
920.170945 8.004056 634.167786 149 175 187
1025.508750 118.240189 705.602991 138 165 161
939.039598 11.624122 643.203167 160 179 182
898.499480 38.665386 613.451458 144 171 181
979.890288 60.270960 669.469019 93 122 113
1138.725639 318.442667 780.123571 179 196 193
719.182526 467.542628 488.408199 162 189 193
1130.886983 483.121723 771.466725 189 204 200
1127.374317 487.759019 768.704222 186 203 194
1129.894819 495.511224 770.644625 186 203 194
1090.431770 168.619934 741.068607 206 219 211
975.577808 -22.204017 658.511031 111 146 160
1019.873574 169.588327 686.797839 178 199 190
1122.138358 218.177082 751.894216 191 205 199
1000.375376 -35.856081 666.471921 140 175 178
1001.059785 -16.857393 666.065331 121 149 160
1003.968878 -41.218550 667.074871 182 209 206
1007.975438 -50.561810 668.607176 181 201 196
1138.363534 504.612334 759.948869 185 206 191
1004.847584 -46.125325 666.125526 178 199 196
1019.053090 -19.784380 674.178330 122 152 163
1023.539880 39.442547 675.325857 163 185 173
1153.015001 296.543017 761.549202 209 224 220
1142.247164 542.537545 750.024591 206 225 228
1041.667328 31.097509 678.341859 177 200 186
1061.007212 -52.124240 690.190693 64 93 108
1041.468401 24.738117 677.284543 147 172 168
1053.160345 63.035573 684.534116 215 222 219
1131.533678 558.723870 738.290088 208 219 211
1131.533678 558.723870 738.290088 208 219 211
1158.479360 462.005506 752.951145 95 124 128
1154.166014 522.563461 748.505216 112 139 135
1091.775544 104.652897 705.730788 209 220 218
1091.775544 104.652897 705.730788 209 220 218
1079.926376 82.198515 697.675536 149 174 164
1079.926376 82.198515 697.675536 149 174 164
1056.359454 36.995849 681.943277 188 213 199
1151.777649 550.266587 743.146266 182 208 195
1151.777649 550.266587 743.146266 182 208 195
1082.715218 -16.402680 694.536018 61 94 103
1082.451836 -8.423123 694.199361 65 95 106
1073.974764 40.707891 688.893018 203 223 211
1153.256651 330.770312 741.102295 207 220 212
1167.372951 376.482547 749.758036 211 225 223
1079.906544 48.128579 691.130144 194 215 206
1089.551461 59.307376 696.444312 210 220 214
1159.648764 340.885760 742.371032 185 202 198
1135.347843 591.775556 726.742247 183 207 197
1082.563750 36.726056 690.121453 120 148 149
1171.508966 413.616686 746.192429 120 144 156
1166.272477 491.165104 740.925177 117 140 155
1083.117574 186.883045 684.338671 192 206 204
1124.875455 82.423857 706.431420 168 187 184
1124.875455 82.423857 706.431420 168 187 184
1179.542615 323.359756 730.414498 206 220 216
1184.729227 480.788696 733.382693 95 126 141
1181.194455 533.865934 730.627864 140 164 170
1180.122654 536.148917 729.501664 204 221 208
1186.974175 328.844474 732.667422 137 158 156
1196.681711 338.203989 735.355598 195 212 209
1195.929752 186.197932 731.232413 191 206 202
1191.446574 319.980720 728.173304 191 206 198
1191.446574 319.980720 728.173304 191 206 198
1176.472528 559.609024 719.171717 167 187 168
1225.523274 24.169613 745.218779 43 79 89
1225.523274 24.169613 745.218779 43 79 89
1206.540190 243.996783 733.000664 184 203 200
1211.560660 298.414789 735.226054 186 206 194
1211.560660 298.414789 735.226054 186 206 194
1191.872737 534.890569 723.199288 192 213 215
1210.307905 338.267753 733.405625 196 213 204
1201.573178 439.243926 727.832987 182 204 186
1206.537963 345.766796 729.846036 195 209 207
1189.219248 532.468773 718.676591 164 190 190
1204.203970 407.385348 726.799573 203 214 211
1185.361083 416.813582 711.186685 200 217 214
1189.263905 410.881928 716.908834 178 198 186
1209.353902 446.539669 727.110775 177 194 191
1212.635857 469.359300 728.633191 200 217 214
1196.203077 526.189562 718.606921 190 203 205
1196.203077 526.189562 718.606921 190 203 205
1231.111322 319.760036 737.874075 162 189 193
1231.111322 319.760036 737.874075 162 189 193
1212.128546 504.279419 722.019852 167 194 198
1192.967936 582.419362 710.562991 114 136 142
1218.161088 489.199449 723.935569 119 142 158
1238.915311 425.334522 735.008845 117 146 143
1251.695184 406.114999 742.488987 38 66 83
1261.427030 325.007712 745.838354 78 110 129
1184.335584 563.686013 698.051141 141 158 155
1205.013791 538.571919 704.298671 45 76 97
1376.776428 -2.025497 797.610936 175 214 188
1376.776428 -2.025497 797.610936 175 214 188
1251.922625 504.259767 723.082404 31 65 78
1446.031577 -78.649092 824.067345 142 175 168
1382.951941 401.310745 789.193292 88 116 123
1410.018500 307.577327 803.180635 123 153 148
1530.492739 -76.563065 867.202289 198 217 214
1382.005250 522.402539 785.775555 62 89 93
1436.572176 83.122514 814.048559 90 120 121
1376.956366 572.467233 780.850352 130 156 162
1481.206553 -66.763856 836.795665 167 197 186
1352.864132 634.275399 764.396951 163 182 190
1352.864132 634.275399 764.396951 163 182 190
1354.461372 656.871671 764.805259 150 177 187
1394.850967 605.078907 786.382089 157 169 179
1443.862812 -59.630939 809.351192 198 217 214
991.636674 590.433503 547.996247 127 160 163
136.997747 237.393622 574.448134 115 142 152
140.090544 266.499243 555.812223 96 127 136
165.064835 -3.358282 589.070832 118 147 152
165.300155 -3.425416 587.958789 118 147 152
145.895023 265.761596 560.041536 110 140 145
151.839026 234.757964 568.362880 136 167 176
164.001869 104.353285 589.750285 126 155 160
166.071919 81.262946 591.305455 121 152 161
176.238398 -1.210139 586.712519 120 150 155
232.962025 109.033958 405.703682 124 147 155
233.351656 108.190049 403.359971 124 147 155
235.357687 103.775824 401.084820 126 153 163
217.108278 359.626959 326.662633 189 210 207
236.311152 101.810201 402.208142 140 169 178
235.224208 126.642359 403.597498 114 140 140
238.132291 99.608853 401.745028 152 183 182
242.112578 61.787686 416.459356 181 203 201
240.822688 100.270937 404.812215 159 182 177
243.838751 123.584878 409.316703 147 170 165
226.555320 356.373149 335.666789 179 198 195
248.745193 102.188044 404.526598 160 184 172
253.823955 89.241230 406.682635 182 195 187
239.623411 283.695518 375.176158 94 126 137
232.716066 371.890115 343.681894 190 198 197
234.578368 354.892297 345.668318 200 210 217
262.790824 24.204319 426.053633 162 187 183
262.790824 24.204319 426.053633 162 187 183
258.870482 110.319934 410.525397 218 224 223
259.227868 104.864689 407.198915 229 233 238
260.575834 87.628048 409.381708 188 202 191
265.729099 29.846242 422.693394 159 183 181
264.450984 45.551656 417.134760 203 215 203
259.779349 127.251073 410.106749 187 205 204
247.947920 276.565466 381.373057 78 109 118
269.468664 21.666632 425.892961 167 189 177
260.864082 129.338999 409.473130 176 196 191
248.715333 291.842408 372.028163 193 205 211
244.349882 348.248595 352.490718 150 166 165
268.661696 158.322279 425.823054 154 177 169
247.357518 309.753093 308.717317 184 197 195
250.710202 351.991877 353.591761 140 161 158
277.594102 69.964199 423.410820 187 201 199
289.527413 -49.386753 440.496630 177 195 182
279.547959 69.614943 426.025176 185 198 196
275.364244 108.899662 412.360242 218 225 222
291.255070 -56.560108 441.461687 176 193 180
253.667883 356.874631 355.385676 147 166 163
253.881869 354.521484 355.614365 143 162 159
253.204221 365.149338 353.949654 136 156 157
253.354797 363.981694 352.797266 136 156 157
290.801916 -55.713971 409.529066 176 193 180
277.608716 112.113014 413.592231 175 196 187
283.064331 67.333295 428.163163 152 164 158
296.788337 -80.931707 443.734153 177 196 181
281.219712 98.755885 422.249222 176 184 184
281.219712 98.755885 422.249222 176 184 184
283.456324 82.075210 425.362575 152 169 158
284.485932 92.865835 440.475114 162 179 168
284.529426 85.063748 425.201201 162 179 168
283.918927 97.993940 423.062045 154 163 166
284.372700 93.381579 423.653795 188 166 171
284.372700 93.381579 423.653795 188 166 171
285.266658 87.592859 424.865911 180 194 193
284.296736 84.760964 404.318603 188 166 171
286.647606 79.334140 426.274849 148 168 156
284.184748 76.197994 381.817381 188 166 171
287.850092 72.575670 428.469627 117 139 134
288.580437 71.142687 427.986609 118 140 138
290.120828 64.690731 430.206002 132 156 148
284.632645 60.828728 355.136131 162 179 168
290.610123 66.076505 429.943212 127 153 147
304.115911 -78.530003 445.871522 143 161 144
289.357017 89.467341 427.089892 194 207 205
264.140130 364.500263 357.977695 135 154 157
296.586313 60.938485 432.849032 180 194 192
296.737225 73.309760 431.999331 164 185 182
301.005520 35.168524 436.912461 158 179 164
272.020620 364.293620 380.801589 148 171 167
308.210488 27.848229 439.675514 136 164 165
318.247002 -76.847743 449.857089 136 155 128
315.504142 -41.678191 448.177359 153 170 157
318.650054 -39.637080 448.657246 156 165 155
313.400910 21.342414 441.939263 174 197 189
319.579804 -40.437610 448.716366 152 167 159
318.559171 15.452762 443.909434 178 197 178
325.252275 -42.318084 450.102747 155 169 157
325.252275 -42.318084 450.102747 155 169 157
314.036733 11.347270 405.174003 157 182 178
326.385427 -43.178495 450.593914 154 171 157
336.198341 -76.208252 455.113082 143 158 131
330.114270 5.405803 448.521731 133 153 134
333.591347 -24.789340 446.331429 140 156 145
339.455051 -75.857053 455.769015 91 119 106
342.445034 -52.930214 455.352195 174 177 175
343.398205 -3.235788 453.284541 140 157 146
335.142937 443.519030 519.656619 194 212 223
363.442869 508.418934 615.301537 194 212 213
359.450559 -17.711265 462.929643 147 156 159
359.081742 -10.514371 458.046054 129 151 133
317.763370 406.394302 383.751685 103 142 150
402.339453 417.246280 644.208398 188 216 223
407.302775 388.405414 651.086454 197 214 227
413.170450 374.545283 655.129337 190 211 226
413.170450 374.545283 655.129337 190 211 226
380.872265 -57.095950 464.815930 93 125 131
410.081072 424.213390 644.787921 223 238 241
329.739664 410.316840 387.701316 98 127 132
419.764591 365.877636 658.034451 222 233 241
399.329613 326.423143 572.770002 190 211 226
419.715828 420.713925 648.464647 184 208 220
389.532093 -56.013846 465.522273 121 145 157
388.721267 -36.836530 464.725422 175 181 180
388.721267 -36.836530 464.725422 175 181 180
412.068811 503.669816 628.023127 192 213 221
390.208847 -16.339933 467.890747 143 167 157
390.920331 -20.568958 468.129221 115 133 116
396.055837 -64.977869 465.416172 45 79 85
395.281776 -30.231144 462.601477 107 128 119
400.105738 -65.447174 468.647559 55 89 95
345.648773 415.277030 394.199581 93 122 127
348.284261 415.763331 393.715278 85 115 120
402.223126 -41.664019 466.802663 141 160 143
367.617087 428.051060 448.007851 107 129 134
401.435150 -25.885566 467.071158 122 141 124
403.194741 -30.590907 464.983831 115 138 124
409.853109 -71.157353 474.913413 47 79 84
353.389857 410.119835 397.772921 85 117 123
407.632546 -45.795741 470.412659 124 138 132
364.360488 420.218653 423.289381 94 118 124
364.259990 427.630915 422.828117 88 117 124
410.852662 474.082487 541.474653 213 227 233
419.806555 -81.957915 479.231358 60 93 96
420.472915 -83.907087 479.198798 71 106 109
420.975335 -43.631113 474.314589 90 111 109
420.975335 -43.631113 474.314589 90 111 109
427.452608 -54.186254 475.793545 133 155 143
380.097927 429.493570 428.553786 89 117 128
429.534273 -42.884595 475.410615 109 131 129
421.149427 117.716957 469.376629 218 226 226
436.798766 -63.725669 480.578909 143 164 166
441.778800 -68.594480 481.191754 112 144 155
441.778800 -68.594480 481.191754 112 144 155
441.855388 -59.025126 482.229936 149 167 166
441.855388 -59.025126 482.229936 149 167 166
443.161405 -56.576013 482.240571 130 151 136
443.237795 -60.447258 481.712984 146 167 164
441.240387 -13.368621 482.058640 218 226 216
406.801576 446.889210 461.690589 110 139 148
444.460256 -57.634754 481.880104 156 182 176
445.982426 -49.103666 482.856812 220 226 225
447.567526 -57.743566 482.077211 160 184 174
449.315128 -64.724375 482.760849 173 184 174
450.812527 -68.099044 483.071971 200 214 202
450.899219 -41.728516 483.438015 209 219 207
450.127217 -10.882530 485.206560 217 224 217
453.271066 -35.272063 482.178733 228 231 229
453.271066 -35.272063 482.178733 228 231 229
454.779928 -51.401660 482.592000 150 166 155
455.836201 -52.540905 483.528272 151 168 157
456.409458 -47.779289 483.265771 150 170 157
485.437136 491.192349 605.399180 205 220 229
462.480749 -40.715181 486.550121 157 172 164
468.156837 -36.830843 488.170620 222 227 226
476.819667 -79.680669 493.767350 157 180 175
473.607589 -28.454939 491.788704 177 189 169
475.453603 -53.197362 492.782268 159 173 155
482.089731 -59.829955 498.726666 177 192 184
487.171240 -63.312920 499.894580 180 198 185
491.261023 -62.047983 495.109992 161 185 177
487.568002 10.216435 495.767079 227 234 227
428.566267 439.735098 426.183346 112 141 146
491.505481 -27.384764 495.404617 194 208 196
496.956498 -34.766213 494.607649 170 183 175
496.726790 9.766307 497.118597 224 230 225
498.789873 -32.547576 495.268530 184 190 189
452.750183 448.117166 456.480402 108 142 155
502.916354 -30.529119 496.394086 215 221 220
502.489757 -11.138251 494.233494 198 209 201
505.160580 -11.404813 495.513360 165 182 171
522.024526 55.356832 529.852738 225 230 221
512.988126 -19.755320 504.913236 151 173 155
518.149144 -52.569219 508.747087 185 200 179
521.888666 -80.561584 511.731752 176 198 186
510.218425 -5.011141 496.426002 219 225 214
546.403365 471.595167 593.032021 200 225 229
530.840834 -57.818626 516.614392 118 135 124
527.959791 56.071012 512.471260 222 226 221
484.480174 453.259473 469.637285 123 155 168
526.462073 7.987651 500.878493 229 235 230
536.950347 -39.537449 513.732528 111 133 108
544.907513 -71.265859 517.154449 102 124 100
533.924439 45.101699 506.602230 227 228 224
534.390417 37.078393 505.561363 219 226 223
541.148375 59.321953 508.634046 225 227 221
545.882412 66.677934 509.913956 221 226 217
547.588572 20.407321 507.297364 219 225 220
561.002553 150.031719 525.843517 229 235 234
561.002553 150.031719 525.843517 229 235 234
556.896251 90.202201 510.699675 226 233 228
568.981824 249.493002 534.666717 183 198 200
558.041580 176.785694 510.353565 189 203 202
518.816685 467.426755 472.097307 124 162 174
562.610391 215.358303 518.733293 167 180 182
564.796608 114.482555 511.598420 221 227 226
566.608823 122.901756 511.609103 215 222 219
576.335129 49.748686 517.639116 215 222 217
575.105770 49.790056 515.206784 215 222 217
563.217053 167.187374 505.746788 180 192 192
524.861597 390.579219 464.702529 144 170 177
567.950252 142.595104 509.865307 229 234 232
564.726844 162.623278 506.166061 186 198 200
557.633347 189.411894 497.423568 169 182 184
565.460553 148.845461 505.828767 227 234 229
567.921871 252.579330 514.591645 151 170 175
551.416007 362.475589 498.146042 139 164 168
570.820011 139.070821 511.022731 206 226 227
559.826782 200.168078 498.317992 165 178 180
561.136007 200.268355 499.553582 167 180 182
568.719840 174.195815 507.215246 173 186 188
573.681679 145.945373 511.495507 233 236 234
575.337398 135.682351 512.065757 202 214 208
575.337398 135.682351 512.065757 202 214 208
583.607044 67.458008 518.378446 208 218 212
563.411286 276.565741 502.585618 149 170 171
589.172650 75.530244 521.639858 199 209 203
586.407405 59.830551 516.470028 198 209 201
610.004193 -76.369306 538.747300 35 69 69
557.255011 326.356660 488.109702 144 165 167
558.633547 312.550812 489.148123 141 163 169
535.545357 423.854335 462.445337 201 218 215
538.632470 432.431227 464.512368 207 221 220
564.049145 314.830897 491.202934 141 170 174
584.040988 168.095627 509.065039 184 197 195
601.108440 74.996931 526.369002 195 206 198
601.108440 74.996931 526.369002 195 206 198
537.755789 447.334528 462.819005 171 197 203
542.680990 420.823490 467.266041 188 207 204
605.402839 48.558742 529.453331 123 150 140
573.856078 272.639402 499.900721 137 162 166
537.036334 467.140187 461.204503 168 194 206
541.340754 445.931534 464.747786 183 208 210
625.414831 -72.777595 544.746033 62 93 92
599.949359 88.448426 520.668711 204 216 210
587.772257 172.390182 507.506623 179 194 190
544.802098 448.609339 466.218443 180 201 202
591.706345 159.183943 509.931271 171 185 184
629.313083 -70.838206 544.618761 62 98 98
594.980594 149.911259 512.474560 184 200 193
593.210112 162.143298 510.048139 167 181 179
551.026581 430.714836 469.331775 200 216 209
551.098888 433.598091 469.072812 198 214 207
592.857608 173.969598 508.942156 179 195 188
552.798589 436.655388 470.072940 197 213 206
551.691622 450.309396 469.227887 206 220 216
554.310955 442.909559 471.422939 201 218 209
594.784696 230.528160 509.689103 174 190 189
556.363010 451.442436 471.405055 205 219 217
569.587273 399.494503 484.650612 145 171 177
576.396866 369.944986 491.790246 133 161 162
568.048714 396.873779 481.839471 145 171 177
557.382121 465.822700 470.345365 193 212 217
563.575653 428.974460 475.445149 185 204 201
604.107932 189.226400 514.044893 190 208 201
599.117572 266.271388 508.443996 129 154 156
620.307227 145.420789 526.077293 182 196 194
598.078245 307.695031 505.346326 171 193 188
602.882319 274.719941 509.566777 128 157 162
602.882319 274.719941 509.566777 128 157 162
639.228302 47.258884 540.897313 73 103 114
611.892075 238.488602 516.724050 198 210 204
601.222534 304.044064 506.120690 169 188 179
602.515235 313.971347 507.364863 182 201 192
615.634878 250.418742 517.107174 177 185 184
619.753543 183.159361 518.631602 189 206 197
566.687965 474.468620 467.167200 174 200 216
665.377195 -61.011471 556.501759 52 88 94
621.476083 248.731301 516.997210 173 184 182
600.557423 403.890557 497.560014 192 206 195
589.792210 482.782779 483.326512 209 220 217
615.651745 392.629959 505.356247 191 206 198
620.490093 380.952466 507.641563 133 152 143
620.490093 380.952466 507.641563 133 152 143
630.480834 384.167012 511.575995 124 149 139
630.480834 384.167012 511.575995 124 149 139
623.927010 410.055624 504.660867 135 159 147
685.278185 38.913921 557.310287 32 70 72
671.299658 172.552398 543.209830 152 165 167
672.318269 164.804740 544.025505 105 126 134
692.807507 58.181134 558.982892 58 89 92
695.210574 59.669687 559.062910 52 82 83
710.587301 -47.248514 569.582864 35 67 78
651.485234 411.787062 518.159716 125 150 140
717.618215 -32.313131 570.363448 49 81 86
645.192408 491.557417 502.981686 164 176 182
725.337505 31.566177 570.982818 56 90 96
646.789531 495.477938 503.319420 164 176 182
646.789531 495.477938 503.319420 164 176 182
672.721924 419.402695 527.195702 117 138 129
671.822676 418.399948 525.929135 117 138 129
742.027363 -71.817864 581.250027 40 78 80
741.084635 -37.962567 579.231115 46 83 87
709.976167 222.737418 553.306500 47 77 88
721.713177 175.311167 563.174170 56 87 90
736.204729 144.142655 571.821296 64 96 107
733.943854 143.892256 568.780105 64 96 107
743.260492 93.136594 574.292680 24 62 74
707.792206 324.444512 544.752357 35 71 79
745.874469 93.754807 574.530599 26 65 74
713.168482 325.749471 546.600026 33 68 78
739.197498 173.609694 566.980415 38 72 78
773.733983 -62.916387 591.506881 34 75 78
746.900828 144.581692 571.498411 34 65 74
746.900828 144.581692 571.498411 34 65 74
688.170201 492.201065 520.507240 166 186 191
685.819847 422.763551 514.536701 115 173 168
686.939912 419.703853 513.578326 85 130 134
696.193230 499.995312 524.920525 169 188 193
747.128832 240.749719 566.131051 28 61 70
748.185467 185.641726 564.161940 30 64 77
762.324474 128.457995 575.403820 35 66 75
712.946856 409.232696 534.925921 47 80 89
751.373642 232.432099 567.144247 23 59 67
751.373642 232.432099 567.144247 23 59 67
699.033827 416.813781 519.274684 51 83 89
685.744873 463.765609 507.210439 146 170 170
693.403694 497.480080 515.673426 163 188 192
758.661437 230.909519 571.705072 28 62 68
699.857409 423.013187 518.532905 55 88 97
691.442558 252.434055 498.311810 31 63 69
787.152529 29.904207 592.138284 53 88 92
787.152529 29.904207 592.138284 53 88 92
779.056630 94.845929 585.551956 34 66 79
753.479771 269.539937 565.244180 38 70 81
743.023845 305.508476 555.389927 56 89 98
765.461713 144.850627 572.010882 26 61 65
784.472249 81.067374 588.676105 49 81 87
762.894877 190.141966 570.284037 27 63 71
744.818031 348.563708 557.488993 45 76 85
750.725231 345.942950 563.238379 47 79 84
750.858237 317.785251 561.905305 45 79 85
790.241399 50.784036 591.997751 22 64 76
784.837850 89.460651 587.637076 41 72 81
786.132579 82.051951 586.681249 59 92 101
766.368789 192.198891 569.637995 26 58 69
755.365162 333.377925 562.584147 32 70 82
757.269280 314.118111 563.324078 48 83 87
726.219478 486.582293 536.676420 157 166 170
724.165258 486.867490 533.856803 158 176 177
728.368928 479.285479 537.509117 166 182 188
758.979578 309.916279 561.609640 68 103 113
804.868365 58.233890 597.470161 13 51 63
793.701125 134.874868 588.594599 29 66 70
731.007306 483.560021 538.163775 166 185 190
761.814637 304.753459 562.202114 63 97 96
802.520381 73.690859 593.313425 18 53 66
737.368250 459.509014 542.092269 150 179 188
772.789723 319.092633 571.376741 54 87 96
772.789723 319.092633 571.376741 54 87 96
771.215292 338.819660 568.413757 33 65 76
771.215292 338.819660 568.413757 33 65 76
784.569081 243.823078 578.352705 54 87 96
762.080450 414.214996 559.911715 39 72 81
741.852505 486.020057 542.451084 171 183 187
806.103236 139.149318 593.462371 32 69 73
810.906924 110.585727 596.270163 17 49 55
802.017455 227.128057 590.796023 68 99 114
765.182026 449.500508 561.822603 54 84 89
765.182026 449.500508 561.822603 54 84 89
800.921027 221.120908 588.553366 65 99 112
814.144250 112.541371 597.255059 25 61 67
814.250991 121.479191 597.213601 41 77 83
814.250991 121.479191 597.213601 41 77 83
813.297861 228.795015 599.243992 81 118 126
749.581490 488.444234 544.979001 166 183 186
830.264191 6.802539 606.610124 50 81 84
818.913922 84.685526 598.021897 11 44 53
821.206852 113.495172 600.757250 60 98 98
832.271218 22.682317 607.831076 55 82 86
823.955795 89.010545 601.749196 41 76 90
824.100786 105.790486 601.650397 42 76 82
823.814065 94.565410 600.059043 46 80 86
843.380758 66.391357 611.443819 23 59 69
836.001660 80.206950 604.407716 17 52 65
789.597585 458.035322 570.354282 62 100 104
844.901824 81.179856 609.706845 18 53 66
849.292123 64.760435 611.410136 31 68 76
931.296371 156.037169 689.614789 120 147 157
856.247688 59.034752 614.305395 43 84 93
981.532033 291.656746 738.218100 135 162 158
862.786534 8.039282 618.000087 60 96 96
861.423647 58.875526 616.737991 44 79 89
988.913862 295.074801 741.838372 126 152 152
864.350682 67.157218 618.407330 23 60 64
729.231978 468.968484 504.350386 162 183 185
878.053545 -59.541579 626.069881 40 75 79
870.065119 11.265763 620.840695 51 87 93
924.502875 154.319476 675.447408 106 131 121
993.896157 298.064067 743.499192 135 158 144
867.048109 62.126156 618.411797 62 95 104
866.715477 57.910200 617.270156 63 95 101
865.345765 31.640846 614.078616 39 73 79
948.050348 146.491363 693.717952 120 146 132
998.939534 297.664285 744.869373 130 156 143
878.082955 2.415185 623.913658 58 89 90
924.616166 118.831935 669.662756 120 144 136
924.616166 118.831935 669.662756 120 144 136
1000.081997 294.736487 743.963869 133 156 142
988.354597 418.192040 736.677047 148 175 185
1004.435669 301.486107 747.389437 137 158 149
876.471965 54.946433 622.078445 62 97 107
884.661807 6.866697 627.818358 59 90 91
872.915676 73.309105 618.952518 89 128 142
992.799544 405.066992 737.991306 157 181 199
992.799544 405.066992 737.991306 157 181 199
1024.516134 206.071682 760.901268 114 141 131
932.391041 118.263278 672.478403 106 136 123
934.786017 122.366837 674.568662 113 141 128
881.250066 46.312328 622.910638 43 77 83
881.250066 46.312328 622.910638 43 77 83
997.750055 396.951122 739.641414 136 160 188
998.406857 423.180030 740.452815 152 175 191
739.151258 474.979717 504.404884 125 166 189
937.963401 110.477508 675.783141 114 143 128
984.358733 117.137450 718.413927 108 134 121
997.138080 422.589497 739.107236 152 175 191
1010.078561 297.333153 747.219631 129 155 141
884.248513 50.400834 624.223003 106 139 154
884.248513 50.400834 624.223003 106 139 154
1014.368396 304.152110 750.455822 117 142 132
1002.604417 407.157061 741.645798 149 173 193
1002.604417 407.157061 741.645798 149 173 193
882.888483 24.414253 620.906869 28 66 71
903.273592 114.154196 641.495341 113 141 128
890.247369 57.113511 627.282819 137 163 175
945.184533 110.112468 677.386538 108 134 121
1004.164771 419.435128 739.819089 154 177 193
978.125434 141.873701 707.482652 104 133 118
888.645054 22.182621 622.825764 33 68 72
888.645054 22.182621 622.825764 33 68 72
947.554847 118.099164 678.771983 153 186 172
946.543679 114.011712 677.628390 111 139 126
1022.403970 305.636230 751.725270 117 143 129
1021.278792 314.853436 750.733574 111 135 125
904.857960 -26.397800 634.544704 28 64 72
1035.686371 195.890409 758.598125 100 129 120
1011.073497 407.242205 742.072165 157 181 199
895.221421 20.339889 625.478378 68 103 99
901.513296 43.488625 630.534738 158 180 191
909.935954 1.053077 634.958986 27 59 70
906.050798 50.516452 632.711912 168 189 197
961.778105 115.254587 683.788933 114 138 130
961.516609 111.202553 683.055645 199 218 209
918.428694 -45.255117 639.724964 35 74 83
910.087189 46.569535 634.362449 160 189 198
732.111272 464.647746 486.566463 126 156 161
965.069933 113.913301 684.396213 120 144 132
1054.966663 242.069513 767.164798 118 150 145
899.191739 106.999985 624.368205 148 181 174
913.014170 35.537682 634.745686 149 177 188
918.361890 49.054323 638.631651 146 168 179
913.091742 15.719696 631.930947 56 86 87
1051.371870 313.786925 762.864078 118 148 149
1051.704215 291.676703 761.196971 130 160 155
919.827411 38.679633 637.341163 187 195 208
1024.176171 50.437893 728.393480 138 164 170
918.602491 14.934649 633.476184 48 84 92
1057.045054 309.935982 763.081908 120 155 165
950.469070 76.476071 662.655662 93 120 104
1039.518475 472.572961 751.308098 140 177 203
1039.431768 467.853488 751.079852 171 204 224
1062.356894 316.729893 766.937019 116 145 142
1068.297213 229.565319 768.032010 157 182 178
924.793852 14.049437 635.699471 31 70 79
722.149937 458.263121 469.331628 191 210 218
1066.376530 315.436747 767.257315 125 159 153
1067.433284 312.564358 766.556005 124 156 162
934.958958 -30.264645 641.361773 20 54 67
941.955667 -43.915194 646.858491 19 55 65
1076.257856 248.066775 772.380987 217 229 235
784.100785 479.274222 522.736225 151 180 189
931.577666 13.508081 638.441505 40 76 84
937.305331 32.259155 643.270402 151 168 181
938.324831 36.383188 643.945612 138 164 176
996.857602 114.840214 696.308680 125 152 149
940.819528 43.340509 644.897079 138 164 170
941.690333 -1.027171 643.614254 16 51 61
951.318841 -15.172382 651.001664 16 51 64
941.644281 18.803277 643.436576 96 124 141
1084.803780 244.452171 773.221563 215 226 224
954.081580 -27.590530 652.370526 19 52 61
825.036604 501.486298 553.844817 151 177 184
955.889761 -31.160670 652.986821 22 57 61
956.273139 -24.013221 653.323332 10 45 55
956.273139 -24.013221 653.323332 10 45 55
953.358085 -10.511509 651.006065 22 61 69
942.616545 6.197632 641.708635 18 58 70
953.089894 -7.342268 650.335096 17 53 63
952.091595 1.057671 648.152752 18 53 66
955.733597 -8.933748 649.913405 17 53 63
955.733597 -8.933748 649.913405 17 53 63
964.523410 -26.241743 656.078772 12 45 54
964.523410 -26.241743 656.078772 12 45 54
